-768.000000 752.000000 40.000000
-768.112660 750.030345 40.328276
-768.225321 748.060689 40.656552
-768.337981 746.091034 40.984828
-768.450642 744.121378 41.313104
-768.563302 742.151723 41.641380
-768.675962 740.182067 41.969655
-768.788623 738.212412 42.297931
-768.901283 736.242756 42.626207
-769.013944 734.273101 42.954483
-769.126604 732.303446 43.282759
-769.239265 730.333790 43.611035
-769.351925 728.364135 43.939311
-769.464585 726.394479 44.267587
-769.577246 724.424824 44.595863
-769.689906 722.455168 44.924139
-769.802567 720.485513 45.252415
-769.915227 718.515857 45.580690
-770.027887 716.546202 45.908966
-770.140548 714.576547 46.237242
-770.253208 712.606891 46.565518
-770.365869 710.637236 46.893794
-770.478529 708.667580 47.222070
-770.591190 706.697925 47.550346
-770.745506 704.000000 48.000000
-769.834333 702.294702 48.511589
-768.923160 700.589404 49.023179
-768.011987 698.884107 49.534768
-767.100815 697.178809 50.046357
-766.189642 695.473511 50.557947
-765.278469 693.768213 51.069536
-764.367297 692.062915 51.581125
-763.456124 690.357618 52.092715
-762.544951 688.652320 52.604304
-761.633778 686.947022 53.115893
-760.722606 685.241724 53.627483
-759.811433 683.536426 54.139072
-758.900260 681.831128 54.650661
-757.989088 680.125831 55.162251
-757.077915 678.420533 55.673840
-756.166742 676.715235 56.185429
-755.255569 675.009937 56.697019
-754.344397 673.304639 57.208608
-753.433224 671.599342 57.720198
-752.522051 669.894044 58.231787
-751.610879 668.188746 58.743376
-750.699706 666.483448 59.254966
-749.788533 664.778150 59.766555
-748.877360 663.072853 60.278144
-747.966188 661.367555 60.789734
-747.055015 659.662257 61.301323
-746.143842 657.956959 61.812912
-745.232670 656.251661 62.324502
-744.321497 654.546363 62.836091
-743.410324 652.841066 63.347680
-742.499151 651.135768 63.859270
-741.587979 649.430470 64.370859
-740.676806 647.725172 64.882448
-739.765633 646.019874 65.394038
-738.854461 644.314577 65.905627
-737.943288 642.609279 66.417216
-737.032115 640.903981 66.928806
-736.120942 639.198683 67.440395
-735.209770 637.493385 67.951984
-734.298597 635.788088 68.463574
-733.387424 634.082790 68.975163
-732.476252 632.377492 69.486752
-731.565079 630.672194 69.998342
-730.653906 628.966896 70.509931
-729.742733 627.261598 71.021520
-728.000000 624.000000 72.000000
-727.719957 622.270456 71.035503
-727.439914 620.540912 70.071007
-727.159871 618.811368 69.106510
-726.879828 617.081824 68.142013
-726.599786 615.352280 67.177517
-726.319743 613.622737 66.213020
-726.039700 611.893193 65.248523
-725.759657 610.163649 64.284027
-725.479614 608.434105 63.319530
-725.199571 606.704561 62.355033
-724.919528 604.975017 61.390536
-724.639485 603.245473 60.426040
-724.359443 601.515929 59.461543
-724.079400 599.786385 58.497046
-723.799357 598.056841 57.532550
-723.519314 596.327297 56.568053
-723.239271 594.597754 55.603556
-722.959228 592.868210 54.639060
-722.679185 591.138666 53.674563
-722.399142 589.409122 52.710066
-722.119100 587.679578 51.745570
-721.839057 585.950034 50.781073
-721.559014 584.220490 49.816576
-721.278971 582.490946 48.852080
-720.998928 580.761402 47.887583
-720.718885 579.031858 46.923086
-720.438842 577.302314 45.958590
-720.158799 575.572771 44.994093
-719.878756 573.843227 44.029596
-719.598714 572.113683 43.065100
-719.318671 570.384139 42.100603
-719.038628 568.654595 41.136106
-718.758585 566.925051 40.171609
-718.478542 565.195507 39.207113
-718.198499 563.465963 38.242616
-717.918456 561.736419 37.278119
-717.638413 560.006875 36.313623
-717.358371 558.277331 35.349126
-717.078328 556.547788 34.384629
-716.798285 554.818244 33.420133
-716.518242 553.088700 32.455636
-716.238199 551.359156 31.491139
-715.958156 549.629612 30.526643
-715.678113 547.900068 29.562146
-715.398070 546.170524 28.597649
-715.118027 544.440980 27.633153
-714.837985 542.711436 26.668656
-714.557942 540.981892 25.704159
-714.277899 539.252348 24.739663
-713.997856 537.522805 23.775166
-713.717813 535.793261 22.810669
-713.437770 534.063717 21.846173
-713.157727 532.334173 20.881676
-712.877684 530.604629 19.917179
-712.597642 528.875085 18.952682
-712.317599 527.145541 17.988186
-712.037556 525.415997 17.023689
-711.740326 523.580309 16.000000
-711.740326 523.580309 14.000000
-711.740326 523.580309 12.000000
-711.740326 523.580309 10.000000
-711.740326 523.580309 8.000000
-711.740326 523.580309 6.000000
-711.740326 523.580309 4.000000
-711.740326 523.580309 0.000000
-712.976633 522.080248 -0.470493
-714.212940 520.580188 -0.940986
-715.449247 519.080128 -1.411480
-716.685554 517.580067 -1.881973
-717.921861 516.080007 -2.352466
-719.158168 514.579946 -2.822959
-720.394475 513.079886 -3.293453
-721.630782 511.579825 -3.763946
-722.867089 510.079765 -4.234439
-724.103396 508.579705 -4.704932
-725.339702 507.079644 -5.175425
-726.576009 505.579584 -5.645919
-727.812316 504.079523 -6.116412
-729.048623 502.579463 -6.586905
-730.284930 501.079402 -7.057398
-731.521237 499.579342 -7.527891
-732.757544 498.079281 -7.998385
-733.993851 496.579221 -8.468878
-735.230158 495.079161 -8.939371
-736.466465 493.579100 -9.409864
-737.702772 492.079040 -9.880358
-738.939079 490.578979 -10.350851
-740.175386 489.078919 -10.821344
-741.411692 487.578858 -11.291837
-742.647999 486.078798 -11.762330
-743.884306 484.578737 -12.232824
-745.120613 483.078677 -12.703317
-746.356920 481.578617 -13.173810
-747.593227 480.078556 -13.644303
-748.829534 478.578496 -14.114796
-750.065841 477.078435 -14.585290
-751.302148 475.578375 -15.055783
-752.538455 474.078314 -15.526276
-753.774762 472.578254 -15.996769
-755.011069 471.078193 -16.467263
-756.247376 469.578133 -16.937756
-757.483682 468.078073 -17.408249
-758.719989 466.578012 -17.878742
-759.956296 465.077952 -18.349235
-761.192603 463.577891 -18.819729
-762.428910 462.077831 -19.290222
-763.665217 460.577770 -19.760715
-764.901524 459.077710 -20.231208
-766.137831 457.577650 -20.701701
-767.374138 456.077589 -21.172195
-768.610445 454.577529 -21.642688
-769.846752 453.077468 -22.113181
-771.083059 451.577408 -22.583674
-772.319366 450.077347 -23.054168
-773.555673 448.577287 -23.524661
-774.791979 447.077226 -23.995154
-776.028286 445.577166 -24.465647
-777.264593 444.077106 -24.936140
-778.500900 442.577045 -25.406634
-779.737207 441.076985 -25.877127
-780.973514 439.576924 -26.347620
-782.209821 438.076864 -26.818113
-783.446128 436.576803 -27.288607
-784.682435 435.076743 -27.759100
-785.918742 433.576682 -28.229593
-787.155049 432.076622 -28.700086
-788.391356 430.576562 -29.170579
-789.627663 429.076501 -29.641073
-790.863969 427.576441 -30.111566
-792.100276 426.076380 -30.582059
-793.336583 424.576320 -31.052552
-794.572890 423.076259 -31.523045
-795.809197 421.576199 -31.993539
-797.045504 420.076139 -32.464032
-798.281811 418.576078 -32.934525
-799.518118 417.076018 -33.405018
-800.754425 415.575957 -33.875512
-801.990732 414.075897 -34.346005
-803.227039 412.575836 -34.816498
-804.463346 411.075776 -35.286991
-805.699653 409.575715 -35.757484
-806.935959 408.075655 -36.227978
-808.172266 406.575595 -36.698471
-809.408573 405.075534 -37.168964
-810.644880 403.575474 -37.639457
-811.881187 402.075413 -38.109950
-813.117494 400.575353 -38.580444
-814.353801 399.075292 -39.050937
-815.590108 397.575232 -39.521430
-816.826415 396.075171 -39.991923
-818.062722 394.575111 -40.462417
-819.299029 393.075051 -40.932910
-820.535336 391.574990 -41.403403
-821.771643 390.074930 -41.873896
-823.007949 388.574869 -42.344389
-824.244256 387.074809 -42.814883
-825.480563 385.574748 -43.285376
-826.716870 384.074688 -43.755869
-827.953177 382.574628 -44.226362
-829.189484 381.074567 -44.696855
-830.425791 379.574507 -45.167349
-831.662098 378.074446 -45.637842
-832.898405 376.574386 -46.108335
-834.134712 375.074325 -46.578828
-835.371019 373.574265 -47.049322
-836.607326 372.074204 -47.519815
-837.843633 370.574144 -47.990308
-839.079939 369.074084 -48.460801
-840.316246 367.574023 -48.931294
-841.552553 366.073963 -49.401788
-842.788860 364.573902 -49.872281
-844.025167 363.073842 -50.342774
-845.261474 361.573781 -50.813267
-846.497781 360.073721 -51.283761
-847.734088 358.573660 -51.754254
-848.970395 357.073600 -52.224747
-850.206702 355.573540 -52.695240
-851.443009 354.073479 -53.165733
-852.679316 352.573419 -53.636227
-853.915623 351.073358 -54.106720
-855.151929 349.573298 -54.577213
-856.388236 348.073237 -55.047706
-857.624543 346.573177 -55.518199
-858.860850 345.073116 -55.988693
-860.097157 343.573056 -56.459186
-861.333464 342.072996 -56.929679
-862.569771 340.572935 -57.400172
-863.806078 339.072875 -57.870666
-865.042385 337.572814 -58.341159
-866.278692 336.072754 -58.811652
-867.514999 334.572693 -59.282145
-868.751306 333.072633 -59.752638
-869.987613 331.572573 -60.223132
-871.223919 330.072512 -60.693625
-872.460226 328.572452 -61.164118
-873.696533 327.072391 -61.634611
-874.932840 325.572331 -62.105104
-876.169147 324.072270 -62.575598
-877.405454 322.572210 -63.046091
-878.641761 321.072149 -63.516584
-879.878068 319.572089 -63.987077
-881.114375 318.072029 -64.457571
-882.350682 316.571968 -64.928064
-883.586989 315.071908 -65.398557
-884.823296 313.571847 -65.869050
-886.059603 312.071787 -66.339543
-887.295909 310.571726 -66.810037
-888.532216 309.071666 -67.280530
-889.768523 307.571605 -67.751023
-891.004830 306.071545 -68.221516
-892.241137 304.571485 -68.692009
-893.477444 303.071424 -69.162503
-894.713751 301.571364 -69.632996
-895.950058 300.071303 -70.103489
-897.186365 298.571243 -70.573982
-898.422672 297.071182 -71.044476
-899.658979 295.571122 -71.514969
-900.895286 294.071062 -71.985462
-902.131593 292.571001 -72.455955
-903.367899 291.070941 -72.926448
-904.604206 289.570880 -73.396942
-905.840513 288.070820 -73.867435
-907.076820 286.570759 -74.337928
-908.313127 285.070699 -74.808421
-909.549434 283.570638 -75.278915
-910.785741 282.070578 -75.749408
-912.022048 280.570518 -76.219901
-913.258355 279.070457 -76.690394
-914.494662 277.570397 -77.160887
-915.730969 276.070336 -77.631381
-916.967276 274.570276 -78.101874
-918.203583 273.070215 -78.572367
-919.439889 271.570155 -79.042860
-920.676196 270.070094 -79.513353
-921.912503 268.570034 -79.983847
-923.148810 267.069974 -80.454340
-924.385117 265.569913 -80.924833
-925.621424 264.069853 -81.395326
-926.857731 262.569792 -81.865820
-928.094038 261.069732 -82.336313
-929.330345 259.569671 -82.806806
-930.566652 258.069611 -83.277299
-931.802959 256.569551 -83.747792
-933.039266 255.069490 -84.218286
-934.275573 253.569430 -84.688779
-935.511879 252.069369 -85.159272
-936.748186 250.569309 -85.629765
-937.984493 249.069248 -86.100258
-939.220800 247.569188 -86.570752
-940.457107 246.069127 -87.041245
-941.693414 244.569067 -87.511738
-942.929721 243.069007 -87.982231
-944.166028 241.568946 -88.452725
-945.402335 240.068886 -88.923218
-946.638642 238.568825 -89.393711
-947.874949 237.068765 -89.864204
-949.111256 235.568704 -90.334697
-950.347563 234.068644 -90.805191
-951.583869 232.568583 -91.275684
-952.820176 231.068523 -91.746177
-954.056483 229.568463 -92.216670
-955.292790 228.068402 -92.687163
-956.529097 226.568342 -93.157657
-957.765404 225.068281 -93.628150
-959.001711 223.568221 -94.098643
-960.238018 222.068160 -94.569136
-961.474325 220.568100 -95.039630
-962.710632 219.068040 -95.510123
-963.946939 217.567979 -95.980616
-965.183246 216.067919 -96.451109
-966.419553 214.567858 -96.921602
-967.655859 213.067798 -97.392096
-968.892166 211.567737 -97.862589
-970.128473 210.067677 -98.333082
-971.364780 208.567616 -98.803575
-972.601087 207.067556 -99.274069
-973.837394 205.567496 -99.744562
-975.073701 204.067435 -100.215055
-976.310008 202.567375 -100.685548
-977.546315 201.067314 -101.156041
-978.782622 199.567254 -101.626535
-980.018929 198.067193 -102.097028
-981.255236 196.567133 -102.567521
-982.491543 195.067072 -103.038014
-983.727849 193.567012 -103.508507
-985.019336 192.000000 -104.000000
-985.019336 190.000000 -104.000000
-985.019336 188.000000 -104.000000
-985.019336 186.000000 -104.000000
-985.019336 184.000000 -104.000000
-985.019336 182.000000 -104.000000
-985.019336 180.000000 -104.000000
-985.019336 176.000000 -104.000000
-984.968355 174.113693 -103.337243
-984.917373 172.227386 -102.674487
-984.866392 170.341079 -102.011730
-984.815411 168.454771 -101.348974
-984.764430 166.568464 -100.686217
-984.713448 164.682157 -100.023461
-984.662467 162.795850 -99.360704
-984.611486 160.909543 -98.697947
-984.560505 159.023236 -98.035191
-984.509523 157.136929 -97.372434
-984.458542 155.250621 -96.709678
-984.407561 153.364314 -96.046921
-984.356579 151.478007 -95.384165
-984.305598 149.591700 -94.721408
-984.254617 147.705393 -94.058652
-984.203636 145.819086 -93.395895
-984.152654 143.932779 -92.733138
-984.101673 142.046471 -92.070382
-984.050692 140.160164 -91.407625
-983.999710 138.273857 -90.744869
-983.948729 136.387550 -90.082112
-983.897748 134.501243 -89.419356
-983.846767 132.614936 -88.756599
-983.795785 130.728629 -88.093842
-983.744804 128.842321 -87.431086
-983.693823 126.956014 -86.768329
-983.642842 125.069707 -86.105573
-983.591860 123.183400 -85.442816
-983.540879 121.297093 -84.780060
-983.489898 119.410786 -84.117303
-983.438916 117.524479 -83.454547
-983.387935 115.638171 -82.791790
-983.336954 113.751864 -82.129033
-983.285973 111.865557 -81.466277
-983.234991 109.979250 -80.803520
-983.184010 108.092943 -80.140764
-983.133029 106.206636 -79.478007
-983.082048 104.320328 -78.815251
-983.031066 102.434021 -78.152494
-982.980085 100.547714 -77.489737
-982.929104 98.661407 -76.826981
-982.878122 96.775100 -76.164224
-982.827141 94.888793 -75.501468
-982.776160 93.002486 -74.838711
-982.725179 91.116178 -74.175955
-982.674197 89.229871 -73.513198
-982.623216 87.343564 -72.850441
-982.572235 85.457257 -72.187685
-982.521254 83.570950 -71.524928
-982.470272 81.684643 -70.862172
-982.419291 79.798336 -70.199415
-982.368310 77.912028 -69.536659
-982.317328 76.025721 -68.873902
-982.266347 74.139414 -68.211146
-982.215366 72.253107 -67.548389
-982.164385 70.366800 -66.885632
-982.113403 68.480493 -66.222876
-982.062422 66.594186 -65.560119
-982.011441 64.707878 -64.897363
-981.960460 62.821571 -64.234606
-981.909478 60.935264 -63.571850
-981.858497 59.048957 -62.909093
-981.807516 57.162650 -62.246336
-981.756534 55.276343 -61.583580
-981.705553 53.390036 -60.920823
-981.654572 51.503728 -60.258067
-981.603591 49.617421 -59.595310
-981.552609 47.731114 -58.932554
-981.501628 45.844807 -58.269797
-981.450647 43.958500 -57.607040
-981.399666 42.072193 -56.944284
-981.348684 40.185886 -56.281527
-981.297703 38.299578 -55.618771
-981.246722 36.413271 -54.956014
-981.195740 34.526964 -54.293258
-981.144759 32.640657 -53.630501
-981.093778 30.754350 -52.967745
-981.042797 28.868043 -52.304988
-980.991815 26.981736 -51.642231
-980.940834 25.095428 -50.979475
-980.889853 23.209121 -50.316718
-980.838871 21.322814 -49.653962
-980.787890 19.436507 -48.991205
-980.736909 17.550200 -48.328449
-980.685928 15.663893 -47.665692
-980.634946 13.777586 -47.002935
-980.583965 11.891278 -46.340179
-980.532984 10.004971 -45.677422
-980.482003 8.118664 -45.014666
-980.431021 6.232357 -44.351909
-980.380040 4.346050 -43.689153
-980.329059 2.459743 -43.026396
-980.278077 0.573436 -42.363640
-980.227096 -1.312872 -41.700883
-980.176115 -3.199179 -41.038126
-980.125134 -5.085486 -40.375370
-980.074152 -6.971793 -39.712613
-980.023171 -8.858100 -39.049857
-979.972190 -10.744407 -38.387100
-979.921209 -12.630715 -37.724344
-979.870227 -14.517022 -37.061587
-979.819246 -16.403329 -36.398830
-979.768265 -18.289636 -35.736074
-979.717283 -20.175943 -35.073317
-979.666302 -22.062250 -34.410561
-979.615321 -23.948557 -33.747804
-979.564340 -25.834865 -33.085048
-979.513358 -27.721172 -32.422291
-979.462377 -29.607479 -31.759534
-979.411396 -31.493786 -31.096778
-979.360415 -33.380093 -30.434021
-979.309433 -35.266400 -29.771265
-979.258452 -37.152707 -29.108508
-979.207471 -39.039015 -28.445752
-979.156489 -40.925322 -27.782995
-979.105508 -42.811629 -27.120239
-979.054527 -44.697936 -26.457482
-979.003546 -46.584243 -25.794725
-978.952564 -48.470550 -25.131969
-978.901583 -50.356857 -24.469212
-978.850602 -52.243165 -23.806456
-978.799621 -54.129472 -23.143699
-978.748639 -56.015779 -22.480943
-978.697658 -57.902086 -21.818186
-978.646677 -59.788393 -21.155429
-978.595695 -61.674700 -20.492673
-978.544714 -63.561007 -19.829916
-978.493733 -65.447315 -19.167160
-978.442752 -67.333622 -18.504403
-978.391770 -69.219929 -17.841647
-978.340789 -71.106236 -17.178890
-978.289808 -72.992543 -16.516133
-978.238827 -74.878850 -15.853377
-978.187845 -76.765157 -15.190620
-978.136864 -78.651465 -14.527864
-978.085883 -80.537772 -13.865107
-978.034901 -82.424079 -13.202351
-977.983920 -84.310386 -12.539594
-977.932939 -86.196693 -11.876838
-977.881958 -88.083000 -11.214081
-977.830976 -89.969307 -10.551324
-977.779995 -91.855615 -9.888568
-977.729014 -93.741922 -9.225811
-977.678032 -95.628229 -8.563055
-977.627051 -97.514536 -7.900298
-977.576070 -99.400843 -7.237542
-977.525089 -101.287150 -6.574785
-977.474107 -103.173457 -5.912028
-977.423126 -105.059765 -5.249272
-977.372145 -106.946072 -4.586515
-977.321164 -108.832379 -3.923759
-977.270182 -110.718686 -3.261002
-977.219201 -112.604993 -2.598246
-977.168220 -114.491300 -1.935489
-977.117238 -116.377607 -1.272733
-977.019336 -120.000000 0.000000
-977.019336 -121.414214 1.414214
-977.019336 -122.828427 2.828427
-977.019336 -124.242641 4.242641
-977.019336 -125.656854 5.656854
